# .PCD v0.7 - Point Cloud Data file format
VERSION 0.7
FIELDS x y z rgb
SIZE 4 4 4 4
TYPE F F F U
COUNT 1 1 1 1
WIDTH 1121
HEIGHT 1
VIEWPOINT 0 0 0 1 0 0 0
POINTS 1121
DATA ascii
9.0004625 0.023582842 0.86289382 1120403456
9.0004454 0.070749685 0.86291587 1120403456
9.0004101 0.11792 0.86295992 1120403456
9.0003567 0.16509609 0.8630259 1120403456
9.0002861 0.21228027 0.86311388 1120403456
9.0006304 0.25948736 0.86326551 1120403456
9.0006008 0.30669957 0.86340499 1120403456
9.0005512 0.35392755 0.86356622 1120403456
9.0004826 0.40117365 0.86374956 1120403456
9.0003948 0.44844013 0.86395478 1120403456
9.0002871 0.4957293 0.86418194 1120403456
9.0001583 0.54304338 0.86443096 1120403456
9.0000095 0.59038466 0.86470193 1120403456
8.9998388 0.63775551 0.86499476 1120403456
9.0007887 0.68524492 0.86541927 1120403456
9.0006485 0.73269361 0.86576313 1120403456
9.0004845 0.7801792 0.86612874 1120403456
9.0002956 0.82770395 0.86651605 1120403456
9.000082 0.87527013 0.86692518 1120403456
8.9998426 0.92287993 0.867356 1120403456
8.9995756 0.97053546 0.86780852 1120403456
8.99928 1.0182388 0.86828262 1120403456
9.0007162 1.0662009 0.8689484 1120403456
9.0004349 1.114025 0.86947292 1120403456
9.0001221 1.161904 0.8700189 1120403456
8.9997759 1.2098403 0.87058634 1120403456
8.9993963 1.2578357 0.87117529 1120403456
8.9989815 1.3058925 0.87178564 1120403456
8.9985294 1.3540125 0.87241727 1120403456
9.0003319 1.402555 0.87329262 1120403456
8.9998741 1.4508314 0.87397397 1120403456
8.9993753 1.4991778 0.87467641 1120403456
9.0002584 1.5478411 0.87553859 1120403456
8.999671 1.5963405 0.87628317 1120403456
9.0017033 1.645403 0.87730861 1120403456
9.001092 1.6940832 0.87810212 1120403456
9.0004311 1.7428437 0.87891662 1120403456
8.9997196 1.7916862 0.87975192 1120403456
8.9989548 1.8406122 0.8806079 1120403456
9.0011663 1.8902603 0.88178164 1120403456
9.0003586 1.9393904 0.8826859 1120403456
8.9994917 1.98861 0.88361079 1120403456
8.9985647 2.0379212 0.88455623 1120403456
9.0008917 2.0880947 0.88584846 1120403456
8.9999037 2.1376271 0.88684148 1120403456
8.998848 2.1872563 0.88785475 1120403456
8.9977245 2.2369843 0.8888883 1120403456
9.0001249 2.2877259 0.89029753 1120403456
9.0003176 2.3380544 0.89151639 1120403456
8.9990339 2.3881307 0.89261663 1120403456
9.0014753 2.439342 0.89411443 1120403456
9.0000944 2.4896677 0.89526093 1120403456
8.9986315 2.5401015 0.89642721 1120403456
9.0010881 2.5917983 0.89801264 1120403456
8.9995127 2.642493 0.89922464 1120403456
8.9978466 2.6933002 0.90045607 1120403456
9.0002899 2.7455034 0.9021281 1120403456
8.9984941 2.796582 0.90340465 1120403456
9.0009384 2.8491502 0.90513653 1120403456
9.0003748 2.9009492 0.90659612 1120403456
8.9983301 2.9524319 0.90793616 1120403456
9.0007019 3.0055451 0.90975219 1120403456
8.9984961 3.0573144 0.91113609 1120403456
9.0008307 3.1108141 0.9130106 1120403456
8.9984531 3.1628764 0.91443813 1120403456
9.0007324 3.2167702 0.91637027 1120403456
8.9981689 3.2691307 0.91784084 1120403456
9.0003786 3.3234262 0.91983002 1120403456
8.99897 3.3765981 0.92148185 1120403456
9.0010872 3.431309 0.9235273 1120403456
8.9981079 3.4842873 0.92508227 1120403456
9.0001221 3.5394137 0.92718345 1120403456
9.0021105 3.5947788 0.92931628 1120403456
8.9988098 3.6482525 0.9309364 1120403456
9.0006695 3.7040427 0.93312401 1120403456
8.9971218 3.7578356 0.93478495 1120403456
9.0001631 3.8146195 0.93716508 1120403456
9.0018206 3.871093 0.93943703 1120403456
8.9978924 3.9254024 0.94116092 1120403456
8.9993744 3.9823134 0.94348586 1120403456
9.0007906 4.0394754 0.9458406 1120403456
9.0021391 4.0968904 0.94822538 1120403456
8.9976683 4.1519094 0.95003325 1120403456
9.0001135 4.2103829 0.95260799 1120403456
9.0011578 4.2685056 0.955073 1120403456
9.0021114 4.3268852 0.95756692 1120403456
8.9970293 4.3826294 0.95945621 1120403456
8.9977341 4.441462 0.96200019 1120403456
8.998332 4.5005541 0.96457249 1120403456
9.0001078 4.5605597 0.96731144 1120403456
9.0004702 4.6201777 0.96993929 1120403456
9.0007105 4.680058 0.9725948 1120403456
9.0008211 4.7401996 0.97527754 1120403456
9.0007992 4.8006048 0.97798765 1120403456
9.000638 4.8612723 0.98072463 1120403456
9.0015984 4.9228969 0.98362678 1120403456
9.0011349 4.984097 0.98641658 1120403456
9.000514 5.0455604 0.9892326 1120403456
8.999732 5.1072879 0.99207467 1120403456
8.998785 5.1692801 0.99494272 1120403456
8.9989138 5.2322626 0.99797481 1120403456
8.9976072 5.2947874 1.0008934 1120403456
9.0027475 5.3615241 1.0045768 1120403456
9.0011034 5.424644 1.0075516 1120403456
8.9992647 5.488028 1.0105511 1120403456
8.9984531 5.5524325 1.0137135 1120403456
9.0029745 5.6205759 1.0175269 1120403456
9.0005388 5.6848202 1.0206046 1120403456
8.9978848 5.7493258 1.023706 1120403456
9.0030975 5.8193221 1.0277545 1120403456
9.0000105 5.8844223 1.0309081 1120403456
8.9966879 5.9497819 1.0340848 1120403456
9.0000906 6.0200596 1.0380877 1120403456
8.9963055 6.0860047 1.0413153 1120403456
9.0004826 6.1578269 1.0455197 1120403456
9.0032587 6.2292409 1.0496198 1120403456
8.9987354 6.2960963 1.0529245 1120403456
9.0010509 6.3682346 1.0570856 1120403456
8.9971724 6.4365034 1.0605769 1120403456
8.9989882 6.5093641 1.0647974 1120403456
9.0005627 6.5826211 1.0690507 1120403456
9.0030479 6.6571326 1.0734748 1120403456
8.9968691 6.7257729 1.0769258 1120403456
8.997632 6.8001347 1.0812678 1120403456
8.9981213 6.8748865 1.0856411 1120403456
8.9994707 6.9509087 1.0901839 1120403456
8.9993782 7.0264363 1.094618 1120403456
8.9989853 7.1023474 1.0990822 1120403456
8.9994173 7.179543 1.1037149 1120403456
8.998394 7.256218 1.1082377 1120403456
8.9970484 7.3332701 1.1127896 1120403456
9.0027742 7.4167948 1.1182898 1120403456
9.0018797 7.4955912 1.1230425 1120403456
8.9995213 7.5738368 1.1276842 1120403456
8.9968071 7.6524487 1.1323535 1120403456
9.0022793 7.7387733 1.1381309 1120403456
8.9988337 7.8181887 1.1428593 1120403456
3.885901 3.4119694 0.49577662 1120403456
3.8422728 3.4094853 0.4924832 1120403456
3.8127809 3.4191954 0.49099293 1120403456
3.8007417 3.4445038 0.49176031 1120403456
3.7958817 3.4765019 0.49348193 1120403456
4.6443644 4.298564 0.60670871 1120403456
4.5996704 4.3021679 0.60380703 1120403456
4.5506697 4.3012662 0.60032529 1120403456
4.502492 4.3006258 0.59693456 1120403456
4.4556203 4.3007321 0.59370023 1120403456
4.408988 4.3005786 0.5904814 1120403456
4.3635888 4.3011484 0.58741188 1120403456
4.318388 4.3014431 0.58435351 1120403456
4.2702689 4.2983274 0.58088219 1120403456
4.2269888 4.2995934 0.57805187 1120403456
4.1838536 4.3005662 0.57522702 1120403456
4.1385098 4.2988005 0.57208222 1120403456
4.0966535 4.300199 0.56940347 1120403456
4.0527306 4.2989793 0.56642205 1120403456
4.0120568 4.300766 0.56387955 1120403456
3.9694481 4.3000484 0.56105042 1120403456
3.9270761 4.2991323 0.55823815 1120403456
3.8857741 4.298943 0.55556178 1120403456
3.8446712 4.2985382 0.55289823 1120403456
3.804575 4.2988334 0.55036414 1120403456
3.7646427 4.2988963 0.54783893 1120403456
3.7256594 4.299634 0.54543734 1120403456
1.2331575 1.4382982 0.18163548 1120403456
1.2204618 1.4386797 0.1808735 1120403456
1.2070835 1.4381187 0.18000524 1120403456
1.1947277 1.4386408 0.17928448 1120403456
1.1817271 1.4382546 0.17846216 1120403456
1.1690351 1.4381058 0.1776811 1120403456
1.1564052 1.4378985 0.17690434 1120403456
1.1440639 1.4379181 0.1761667 1120403456
1.131887 1.4380162 0.17544962 1120403456
1.1197559 1.4380462 0.17473494 1120403456
1.1078875 1.4382898 0.17405668 1120403456
1.097385 1.440204 0.17359002 1120403456
1.0896467 1.4457011 0.17356198 1120403456
1.0874873 1.4586769 0.1744332 1120403456
1.0868813 1.47392 0.17557248 1120403456
1.0797923 1.4804862 0.17567819 1120403456
1.0679756 1.4805187 0.17501554 1120403456
1.0563039 1.4806302 0.17437197 1120403456
1.0446737 1.4806789 0.1737306 1120403456
1.0328676 1.4803534 0.17305495 1120403456
1.0216097 1.4806927 0.17246641 1120403456
1.0100944 1.4805413 0.17182986 1120403456
0.99863219 1.4803445 0.17119731 1120403456
0.98739761 1.4803649 0.17059892 1120403456
0.97629303 1.480464 0.17001842 1120403456
0.96531248 1.4806377 0.1694551 1120403456
0.95413834 1.4803976 0.16885306 1120403456
0.94340068 1.4807208 0.16832373 1120403456
0.93240178 1.480521 0.16774327 1120403456
0.92160827 1.4805316 0.16719498 1120403456
0.91093338 1.480621 0.16666369 1120403456
0.90011495 1.480363 0.16610143 1120403456
0.88966995 1.4806077 0.16560349 1120403456
0.87909049 1.4805198 0.16507612 1120403456
0.86862665 1.4805156 0.16456586 1120403456
0.85827267 1.4805901 0.16407196 1120403456
0.84781927 1.4803828 0.1635544 1120403456
0.83757496 1.4804307 0.16307253 1120403456
0.8273471 1.4804007 0.16258942 1120403456
0.81733465 1.4806521 0.16214438 1120403456
0.80714118 1.4804702 0.16165905 1120403456
0.79716206 1.4805752 0.16121215 1120403456
0.78720045 1.4806094 0.16076449 1120403456
0.77725732 1.4805741 0.1603162 1120403456
0.77155972 1.4886242 0.16074784 1120403456
0.77552867 1.5156702 0.16322729 1120403456
2.1720054 4.3003278 0.46188369 1120403456
2.1438961 4.300529 0.46069229 1120403456
2.1158431 4.3005514 0.45950055 1120403456
2.0878489 4.3003979 0.45830888 1120403456
2.0599163 4.3000731 0.4571175 1120403456
2.0322325 4.2999716 0.45596838 1120403456
2.0049331 4.3003993 0.45489332 1120403456
1.9771901 4.2995825 0.45370468 1120403456
1.9500109 4.2996955 0.4526321 1120403456
1.923072 4.3000607 0.45160347 1120403456
1.8960124 4.2998753 0.45053428 1120403456
1.8690165 4.2995448 0.44946727 1120403456
1.8427296 4.3005743 0.44855922 1120403456
1.8158584 4.2999668 0.44749719 1120403456
1.7988544 4.3227706 0.44888318 1120403456
1.8007795 4.3921437 0.45510083 1120403456
1.800082 4.4568405 0.46082073 1120403456
1.7996695 4.5239477 0.46677783 1120403456
1.7997398 4.5940738 0.47303382 1120403456
1.7999525 4.666472 0.47951055 1120403456
1.8006908 4.7422504 0.48632097 1120403456
1.8016125 4.8206487 0.49338576 1120403456
1.7996948 4.8935657 0.49987659 1120403456
1.8013136 4.9783449 0.50756556 1120403456
1.7997545 5.0567036 0.51458591 1120403456
1.7986332 5.138639 0.52195758 1120403456
1.8014112 5.2343826 0.5307166 1120403456
3.0445628 8.9996166 0.91084534 1120403456
2.9919896 8.9992943 0.90921336 1120403456
2.9398549 8.9997435 0.90768981 1120403456
2.887526 8.9990482 0.90608108 1120403456
2.8356318 8.9991512 0.9045828 1120403456
2.784205 9.0002155 0.90321076 1120403456
2.7325392 8.9999809 0.90173781 1120403456
2.6807022 8.9986124 0.90018088 1120403456
2.629889 9.000145 0.89894319 1120403456
2.5785849 8.9994783 0.89751464 1120403456
2.527689 8.9996929 0.89620268 1120403456
2.4771762 9.0007639 0.89500427 1120403456
2.4264824 9.0006657 0.89371783 1120403456
2.3756466 8.9994831 0.8923521 1120403456
2.3251741 8.9991159 0.89109516 1120403456
2.2750692 8.9996471 0.88995504 1120403456
2.2250617 9.0000582 0.88883042 1120403456
2.1748979 8.9993057 0.8876183 1120403456
2.1250904 8.9994907 0.88652605 1120403456
2.0757983 9.0013857 0.88562894 1120403456
2.0259311 9.0002851 0.88446397 1120403456
1.9764067 9.0001574 0.88342148 1120403456
1.9267508 8.9988785 0.88229275 1120403456
1.8777812 9.0002909 0.88145435 1120403456
1.82854 8.9999123 0.88046676 1120403456
1.7795038 9.0000219 0.87955308 1120403456
1.7304462 8.9994974 0.87860352 1120403456
1.6817784 9.0005016 0.87782907 1120403456
1.6329769 9.0003014 0.8769629 1120403456
1.5841812 8.9995966 0.8760733 1120403456
1.5357299 9.0003386 0.87535006 1120403456
1.4871587 8.9998789 0.87453544 1120403456
1.4388415 9.0004511 0.87384635 1120403456
1.3905878 9.0009518 0.87317544 1120403456
1.3420302 8.9989243 0.87228459 1120403456
1.2939186 8.9993248 0.87165415 1120403456
1.2458678 8.999671 0.87104332 1120403456
1.1978766 8.9999676 0.87045258 1120403456
1.1499447 9.0002308 0.86988318 1120403456
1.1020621 9.0003958 0.86932904 1120403456
1.0542357 9.0005293 0.86879641 1120403456
1.0063332 8.9994707 0.86817324 1120403456
0.95861894 8.9995489 0.86768425 1120403456
0.91105181 9.0005617 0.86730969 1120403456
0.86342824 9.0005713 0.86686271 1120403456
0.81574482 8.9993944 0.86632574 1120403456
0.76828897 9.0002089 0.86600465 1120403456
0.72079897 9.0001726 0.86562586 1120403456
0.67335051 9.0001545 0.86527282 1120403456
0.62590319 8.9996147 0.86489373 1120403456
0.578529 8.9995871 0.86458784 1120403456
0.53122193 9.0001516 0.86436278 1120403456
0.48393497 9.0006552 0.86415571 1120403456
0.43658501 8.9994202 0.86380559 1120403456
0.38934419 8.9998522 0.86363941 1120403456
0.34210491 8.9998817 0.86345828 1120403456
0.29489589 9.000268 0.86333525 1120403456
0.24769789 9.0006142 0.86323214 1120403456
0.20048143 8.9996824 0.8630302 1120403456
0.15330394 8.9998188 0.86295438 1120403456
0.10613527 9.0001116 0.86291724 1120403456
0.058969215 9.0003796 0.86290151 1120403456
0.01180356 9.0006285 0.86290747 1120403456
-0.035359036 8.9996004 0.8628149 1120403456
-0.082524166 8.9998121 0.86286479 1120403456
-0.12969592 9.0000153 0.86293763 1120403456
-0.17687683 9.0002127 0.86303353 1120403456
-0.22407828 9.000762 0.86318702 1120403456
-0.27125072 8.9997492 0.86321431 1120403456
-0.31847277 9.0000172 0.86338824 1120403456
-0.3656936 8.9997549 0.86353505 1120403456
-0.41295436 8.9999838 0.86375284 1120403456
-0.46024132 9.0002346 0.86399645 1120403456
-0.50755769 9.0005102 0.8642664 1120403456
-0.55482662 8.9995155 0.86443824 1120403456
-0.60220438 8.9998474 0.86476135 1120403456
-0.64962149 9.0002146 0.86511183 1120403456
-0.69708145 9.0006227 0.86549038 1120403456
-0.74449831 8.9999924 0.86579299 1120403456
-0.79204297 9.0004215 0.86622167 1120403456
-0.83951807 8.9995871 0.86655283 1120403456
-0.88716567 9.0001192 0.86703986 1120403456
-0.93473202 8.999342 0.86742491 1120403456
-0.9824903 8.9999228 0.86796528 1120403456
-1.0303173 9.0005732 0.86853677 1120403456
-1.0780263 8.9997025 0.86898601 1120403456
-1.1259849 9.0004196 0.86961305 1120403456
-1.1738498 8.9998798 0.87014329 1120403456
-1.22172 8.9989367 0.87065917 1120403456
-1.2699054 8.9998169 0.87137616 1120403456
-1.318185 9.0007887 0.87212712 1120403456
-1.366251 8.9997978 0.87271291 1120403456
-1.4147087 9.0008793 0.87352461 1120403456
-1.4629142 8.9998465 0.87415648 1120403456
-1.5115659 9.0010462 0.87503034 1120403456
-1.559688 8.9986238 0.87557733 1120403456
-1.6085421 8.9999495 0.87651449 1120403456
-1.6570567 8.9988575 0.87724191 1120403456
-1.7061391 9.0003281 0.87824476 1120403456
-1.7548321 8.9992228 0.87902212 1120403456
-1.8041611 9.0008488 0.88009244 1120403456
-1.8530464 8.9997358 0.88092089 1120403456
-1.9026405 9.0015297 0.88206041 1120403456
-1.9517331 9.0004187 0.8829416 1120403456
-1.2040483 5.4152932 0.53185225 1120403456
-1.1990834 5.2626443 0.51747018 1120403456
-1.2022117 5.1515894 0.50716281 1120403456
-1.1973286 5.0118461 0.49401632 1120403456
-1.2001977 4.9098659 0.48457742 1120403456
-1.2028915 4.8114352 0.47547847 1120403456
-1.1980417 4.6875038 0.46384528 1120403456
-1.2005235 4.5966735 0.45547363 1120403456
-1.2028562 4.5088325 0.44738811 1120403456
-1.2260232 4.5008364 0.44722605 1120403456
-1.2512432 4.500288 0.44781697 1120403456
-1.2763293 4.4990282 0.44835097 1120403456
-1.3022816 4.5005493 0.44917652 1120403456
-1.3277217 4.5000138 0.44981128 1120403456
-1.3532329 4.4994707 0.45045966 1120403456
-1.3788165 4.49892 0.45112175 1120403456
-1.4051844 4.5006361 0.45202601 1120403456
-1.4309453 4.5001149 0.45272058 1120403456
-1.4567848 4.499588 0.45342934 1120403456
-1.4827046 4.4990544 0.45415235 1120403456
-1.509533 4.5009799 0.45513898 1120403456
-1.5356488 4.5004807 0.45589596 1120403456
-1.5618514 4.4999766 0.45666778 1120403456
-1.588143 4.4994698 0.45745462 1120403456
-1.6154785 4.501615 0.45852712 1120403456
-1.6419854 4.5011449 0.45934939 1120403456
-1.6685877 4.5006709 0.46018708 1120403456
-1.6950185 4.4994802 0.46096724 1120403456
-1.721813 4.4989991 0.46183601 1120403456
-1.748709 4.4985156 0.46272069 1120403456
-1.7768725 4.5009775 0.46392533 1120403456
-1.8040147 4.5005355 0.4648478 1120403456
-1.8312653 4.5000906 0.46578667 1120403456
-1.8586268 4.4996433 0.4667421 1120403456
-1.8861016 4.4991941 0.46771437 1120403456
-1.9136915 4.4987426 0.46870348 1120403456
-1.9428008 4.5015368 0.47004884 1120403456
-1.970669 4.5011277 0.47107801 1120403456
-1.99866 4.5007162 0.47212464 1120403456
-2.0267761 4.5003018 0.47318885 1120403456
-2.0550201 4.499886 0.47427094 1120403456
-2.0833933 4.4994664 0.47537088 1120403456
-2.1118991 4.4990444 0.47648898 1120403456
-2.1405389 4.4986181 0.47762528 1120403456
-2.1710789 4.5018439 0.47916913 1120403456
-2.200043 4.5014591 0.48034877 1120403456
-2.2291503 4.5010715 0.48154733 1120403456
-2.2584021 4.5006785 0.48276481 1120403456
-2.2878017 4.5002809 0.48400149 1120403456
-2.3173516 4.4998779 0.48525757 1120403456
-2.3470542 4.4994693 0.48653316 1120403456
-2.3769121 4.4990544 0.48782849 1120403456
-2.4069273 4.4986324 0.48914364 1120403456
-2.4371035 4.4982038 0.49047893 1120403456
-2.4697323 4.5019407 0.49229088 1120403456
-2.5002935 4.5015454 0.49367368 1120403456
-2.531024 4.501142 0.49507719 1120403456
-2.5619261 4.5007281 0.49650151 1120403456
-2.5930028 4.5003037 0.49794689 1120403456
-2.6242573 4.4998689 0.49941358 1120403456
-2.6556914 4.4994221 0.50090164 1120403456
-2.6873083 4.4989619 0.50241125 1120403456
-2.7191105 4.4984884 0.50394273 1120403456
-2.7511013 4.4980006 0.50549614 1120403456
-2.7861929 4.5021992 0.50760192 1120403456
-2.8186343 4.50173 0.50920737 1120403456
-2.8512735 4.5012441 0.51083553 1120403456
-2.8841136 4.5007396 0.51248646 1120403456
-2.9171567 4.5002155 0.51416045 1120403456
-2.9504063 4.499671 0.51585764 1120403456
-2.9838653 4.4991055 0.5175783 1120403456
-3.0175359 4.4985161 0.51932251 1120403456
-3.0514219 4.4979033 0.52109063 1120403456
-3.0890827 4.502449 0.52348554 1120403456
-3.1234837 4.5018358 0.5253101 1120403456
-3.1581089 4.501194 0.52715915 1120403456
-3.1929626 4.5005236 0.52903295 1120403456
-3.2280469 4.4998217 0.53093165 1120403456
-3.2633655 4.4990878 0.53285551 1120403456
-3.2989218 4.4983206 0.53480482 1120403456
-3.3347178 4.4975185 0.5367797 1120403456
-3.3749659 4.5022936 0.53945303 1120403456
-3.4113359 4.5014668 0.54148847 1120403456
-3.447957 4.5006003 0.54355031 1120403456
-3.484832 4.499692 0.54563862 1120403456
-3.5219641 4.4987402 0.54775375 1120403456
-3.5593562 4.4977431 0.54989588 1120403456
-3.6017628 4.5026388 0.55279452 1120403456
-3.6397769 4.5015969 0.55500066 1120403456
-3.6780617 4.5005031 0.55723453 1120403456
-3.7166207 4.4993567 0.5594964 1120403456
-3.7560523 4.4988685 0.56187558 1120403456
-3.7951744 4.4976091 0.56419444 1120403456
-3.8399222 4.5025544 0.56733125 1120403456
-3.879715 4.501224 0.56971759 1120403456
-3.9198012 4.4998317 0.57213342 1120403456
-3.9601822 4.498374 0.57457882 1120403456
-4.0008621 4.4968481 0.57705402 1120403456
-4.0477161 4.5017834 0.5804013 1120403456
-4.0891094 4.5001636 0.58294719 1120403456
-4.1308136 4.4984694 0.58552384 1120403456
-4.1728325 4.4966989 0.58813155 1120403456
-8.4430113 9.003212 1.1833174 1120403456
-8.5285463 8.9994402 1.1886795 1120403456
-8.6147337 8.9954987 1.1941053 1120403456
-8.7149601 9.005208 1.2014402 1120403456
-8.8040743 9.0024061 1.2072052 1120403456
-8.8925037 8.9980116 1.2128482 1120403456
-8.981616 8.9934263 1.2185577 1120403456
-8.9978456 8.9157419 1.214404 1120403456
-9.0023928 8.8272352 1.2087578 1120403456
-9.0069561 8.7396021 1.2032045 1120403456
-8.9979887 8.6398153 1.1959419 1120403456
-9.0027418 8.5541582 1.1905992 1120403456
-8.9943419 8.456933 1.1836112 1120403456
-8.9992723 8.3731527 1.1784697 1120403456
-9.0042152 8.2901449 1.1734117 1120403456
-8.9978981 8.1976233 1.1669741 1120403456
-9.003005 8.1163473 1.1621042 1120403456
-8.9958248 8.0248213 1.1557335 1120403456
-9.001091 7.9452076 1.151045 1120403456
-8.9944153 7.8558416 1.1449111 1120403456
-8.9998312 7.7778106 1.1403966 1120403456
-9.0052509 7.700429 1.1359545 1120403456
-8.9991961 7.6139731 1.130142 1120403456
-9.0047531 7.538065 1.1258637 1120403456
-8.999157 7.4535236 1.120265 1120403456
-8.9952278 7.3711371 1.1149518 1120403456
-9.0010357 7.2973905 1.1109165 1120403456
-8.9961786 7.2156534 1.105635 1120403456
-9.002099 7.1432033 1.1017469 1120403456
-8.9976568 7.0631566 1.0966582 1120403456
-9.0036812 6.9919395 1.0929116 1120403456
-8.9996328 6.9134994 1.0880076 1120403456
-8.9958601 6.8359404 1.0832057 1120403456
-9.0034094 6.7675462 1.0798296 1120403456
-8.9999971 6.6914601 1.0752 1120403456
-8.9968433 6.6161895 1.0706663 1120403456
-9.0032301 6.54847 1.067328 1120403456
-9.0004148 6.4745784 1.0629573 1120403456
-2.7713001 1.9716194 0.32606837 1120403456
-2.787641 1.9613245 0.32677725 1120403456
-2.805162 1.9517554 0.32762763 1120403456
-2.8260481 1.9443884 0.32887247 1120403456
-2.8474073 1.937178 0.33017218 1120403456
-2.8705695 1.9310083 0.33168 1120403456
-2.8957303 1.9259697 0.33341646 1120403456
-2.9175146 1.918483 0.33476254 1120403456
-2.9503796 1.9180236 0.33737564 1120403456
-9.0025482 5.785614 1.0259595 1120403456
-9.0017672 5.7186799 1.0224411 1120403456
-9.0011635 5.6523094 1.0189943 1120403456
-9.0007353 5.5864892 1.0156176 1120403456
-9.000474 5.521203 1.0123096 1120403456
-9.0016403 5.4572034 1.0092103 1120403456
-9.0016909 5.3929286 1.0060338 1120403456
-9.0018911 5.329144 1.0029212 1120403456
-9.0022392 5.2658386 0.99987191 1120403456
-9.0027275 5.2029967 0.99688399 1120403456
-8.9980507 5.1375809 0.99337125 1120403456
-8.998909 5.075726 0.99051601 1120403456
-8.9998922 5.0142965 0.98771834 1120403456
-9.0009928 4.953279 0.98497683 1120403456
-9.0022068 4.8926625 0.98229051 1120403456
-8.9987841 4.8298883 0.97914171 1120403456
-9.0003061 4.7701235 0.97657406 1120403456
-9.0019245 4.7107244 0.97405773 1120403456
-8.9979973 4.6487675 0.97098339 1120403456
-9.0011072 4.5907755 0.96870959 1120403456
-8.9976597 4.5297589 0.9657706 1120403456
-8.9998045 4.4718785 0.96347225 1120403456
-9.0020189 4.4143105 0.96121967 1120403456
-9.0003815 4.3551502 0.95859468 1120403456
-8.9978046 4.2958584 0.95590949 1120403456
-9.0003777 4.2393146 0.95380956 1120403456
-8.9981956 4.1808133 0.95124346 1120403456
-9.0021305 4.125422 0.94936103 1120403456
-9.0003033 4.0676508 0.94690728 1120403456
-8.9986992 4.0102715 0.94451457 1120403456
-9.0017214 3.9552088 0.94264334 1120403456
-9.0015984 3.8990049 0.94047785 1120403456
-9.0005035 3.8426425 0.93824673 1120403456
-8.9995995 3.786623 0.9360711 1120403456
-8.9988766 3.7309349 0.93394947 1120403456
-8.9994669 3.6760318 0.93199861 1120403456
-8.999074 3.6209617 0.92998004 1120403456
-8.9988365 3.5661893 0.92801148 1120403456
-8.999877 3.5121446 0.92620796 1120403456
-8.9999218 3.4579272 0.924335 1120403456
-9.0001011 3.4039786 0.92250878 1120403456
-9.001523 3.3507035 0.92084205 1120403456
-8.9985876 3.2960253 0.91876221 1120403456
-8.9991951 3.2428639 0.91707653 1120403456
-9.0010061 3.1903231 0.91554481 1120403456
-8.9986935 3.1365209 0.91362512 1120403456
-8.9996548 3.0840609 0.91206938 1120403456
-9.0017853 3.0321727 0.91066241 1120403456
-9.0000124 2.9791532 0.9088912 1120403456
-8.998457 2.9264064 0.90717292 1120403456
-9.0009041 2.8751342 0.90588826 1120403456
-8.9996672 2.8228519 0.90426254 1120403456
-8.9986162 2.7708116 0.90268564 1120403456
-9.0013103 2.7200816 0.90151358 1120403456
-9.0005236 2.6684518 0.90002197 1120403456
-9.0009403 2.6173403 0.89867967 1120403456
-9.000452 2.5661221 0.89727598 1120403456
-9.000104 2.515101 0.89591503 1120403456
-9.0009146 2.4645498 0.89469779 1120403456
-9.0008087 2.4138894 0.8934176 1120403456
-8.9997835 2.3631308 0.89207441 1120403456
-8.9999447 2.3128273 0.89087677 1120403456
-9.0002012 2.2626817 0.88971627 1120403456
-8.9996767 2.2124732 0.88850605 1120403456
-9.000144 2.1626375 0.88742107 1120403456
-8.9999199 2.1127601 0.88629514 1120403456
-9.0005598 2.0632055 0.88528126 1120403456
-9.0005951 2.013628 0.88423473 1120403456
-8.9997978 1.9639847 0.88313317 1120403456
-5.1981664 1.1058669 0.50951058 1120403456
-5.1959467 1.0769652 0.5087328 1120403456
-5.194375 1.0482802 0.50803411 1120403456
-5.192337 1.0195807 0.5073052 1120403456
-5.190928 0.99108171 0.50665319 1120403456
-5.188066 0.96238476 0.50587463 1120403456
-5.1868238 0.9340654 0.50526929 1120403456
-5.1851053 0.90572917 0.50463265 1120403456
-5.1830888 0.87741226 0.50398195 1120403456
-5.1806502 0.84909755 0.50330526 1120403456
-5.1796646 0.82108724 0.50278455 1120403456
-5.1779151 0.79301685 0.50220448 1120403456
-5.1757321 0.76494569 0.50159705 1120403456
-5.1741447 0.73702568 0.50106204 1120403456
-5.1714063 0.70900613 0.50043017 1120403456
-5.1699791 0.68122828 0.49993977 1120403456
-5.1686082 0.65351075 0.49946913 1120403456
-5.1661539 0.62571317 0.49890825 1120403456
-5.1648998 0.59811556 0.49847764 1120403456
-5.1630988 0.57050407 0.49800843 1120403456
-5.1608868 0.54290015 0.4975138 1120403456
-5.1592336 0.51540571 0.49708724 1120403456
-5.1576424 0.48796317 0.49668071 1120403456
-5.1556172 0.46052578 0.49624649 1120403456
-5.1536751 0.43314222 0.49583426 1120403456
-5.151804 0.40580875 0.49544284 1120403456
-5.1504302 0.37855396 0.49511316 1120403456
-5.1486788 0.35130879 0.49476102 1120403456
-5.1465287 0.32407632 0.49438441 1120403456
-5.1448889 0.29691383 0.49407065 1120403456
-5.1429496 0.26976925 0.4937419 1120403456
-5.1414075 0.2426786 0.49346495 1120403456
-5.139585 0.2156058 0.49317485 1120403456
-5.1378198 0.18856606 0.49290386 1120403456
-5.1361012 0.16155671 0.49265102 1120403456
-5.1344213 0.13457526 0.49241549 1120403456
-5.1321068 0.10760553 0.49213266 1120403456
-5.1305017 0.080677137 0.49193141 1120403456
-5.1287036 0.053767987 0.49172527 1120403456
-5.1269441 0.026880832 0.49153629 1120403456
-5.1270142 1.3604993e-05 0.49153629 1120403456
-5.1254086 -1.3600732e-05 0.54876381 1120403456
-5.123271 -0.026861576 0.5485425 1120403456
-5.1215611 -0.053693108 0.54838198 1120403456
-5.1198268 -0.080509275 0.54823393 1120403456
-5.1181345 -0.10731257 0.54810542 1120403456
-5.1163592 -0.13410185 0.54798305 1120403456
-5.1146188 -0.16088097 0.5478794 1120403456
-5.1128583 -0.18764994 0.54778862 1120403456
-5.111084 -0.21441017 0.54771143 1120403456
-5.1093035 -0.24116328 0.54764855 1120403456
-5.1075125 -0.26791039 0.54759949 1120403456
-5.1057262 -0.29465374 0.54756606 1120403456
-5.1039162 -0.32139304 0.54754502 1120403456
-5.1026106 -0.34816542 0.54759312 1120403456
-5.1007977 -0.37490597 0.54760194 1120403456
-5.0989094 -0.40164223 0.54761767 1120403456
-5.0971003 -0.4283874 0.54765695 1120403456
-5.0951986 -0.45512888 0.54770136 1120403456
-5.0934196 -0.4818871 0.54777408 1120403456
-5.0915294 -0.50864208 0.54784989 1120403456
-5.0901799 -0.53546214 0.54799908 1120403456
-5.0883102 -0.56224018 0.5481075 1120403456
-5.0864601 -0.58903188 0.54823315 1120403456
-5.0844178 -0.61581349 0.54835337 1120403456
-5.0831556 -0.64270627 0.54857296 1120403456
-5.0811286 -0.66952074 0.54872525 1120403456
-5.0791068 -0.69635177 0.54889351 1120403456
-5.0779514 -0.72332352 0.54917073 1120403456
-5.0759797 -0.75020278 0.54937512 1120403456
-5.0740304 -0.77710652 0.54959732 1120403456
-5.0726814 -0.80412817 0.54990011 1120403456
-5.0704155 -0.83103031 0.55011904 1120403456
-5.0685487 -0.85802251 0.55039674 1120403456
-5.0673099 -0.88515276 0.55075842 1120403456
-5.065093 -0.91214353 0.55102938 1120403456
-5.0628872 -0.93916416 0.55131727 1120403456
-5.0617862 -0.96642518 0.5517413 1120403456
-5.0596437 -0.99352473 0.5520677 1120403456
-5.058125 -1.0207835 0.55247808 1120403456
-5.0560422 -1.0479671 0.5528428 1120403456
-5.0546012 -1.0753247 0.55329382 1120403456
-5.052599 -1.1026055 0.55369955 1120403456
-5.0512586 -1.1300759 0.55419403 1120403456
-5.0493598 -1.1574688 0.55464357 1120403456
-5.0468059 -1.1847539 0.55503744 1120403456
-5.0456228 -1.2124087 0.55559838 1120403456
-5.0431194 -1.2397963 0.55603051 1120403456
-5.0420604 -1.2675914 0.55663848 1120403456
-5.0396247 -1.2950948 0.5571112 1120403456
-5.0378475 -1.3228199 0.55767339 1120403456
-5.0370035 -1.350853 0.55835593 1120403456
-5.0346918 -1.3785542 0.55889279 1120403456
-5.0330653 -1.4065024 0.55952275 1120403456
-5.0308394 -1.4343444 0.56010324 1120403456
-5.029314 -1.4624501 0.56077898 1120403456
-5.0271935 -1.4904492 0.56140572 1120403456
-5.0257869 -1.5187289 0.56212968 1120403456
-5.0226617 -1.5465543 0.56267887 1120403456
-5.0213575 -1.5750082 0.56344968 1120403456
-5.0201335 -1.6035675 0.56424755 1120403456
-5.017086 -1.6316167 0.56485826 1120403456
-5.0159912 -1.6603762 0.56570691 1120403456
-5.014317 -1.689029 0.56650853 1120403456
-5.0120592 -1.7175654 0.56726253 1120403456
-5.0098276 -1.74619 0.56803787 1120403456
-5.0083704 -1.7751703 0.56891954 1120403456
-5.0062361 -1.8039993 0.56974322 1120403456
-5.0041409 -1.8329293 0.57059002 1120403456
-5.0029416 -1.862282 0.57155824 1120403456
-9.000639 -3.4041817 1.0302968 1120403456
-8.9992924 -3.4576855 1.0322026 1120403456
-8.9993248 -3.511929 1.0343031 1120403456
-8.9994993 -3.5664518 1.0364569 1120403456
-8.9985542 -3.6207526 1.038519 1120403456
-8.9990273 -3.6758523 1.0407825 1120403456
-8.9996643 -3.7312615 1.0431033 1120403456
-8.9991903 -3.7864511 1.0453339 1120403456
-9.0001745 -3.8425019 1.0477728 1120403456
-9.0013475 -3.8988962 1.0502734 1120403456
-9.0027199 -3.9556475 1.0528378 1120403456
-8.9984598 -4.0101647 1.0547827 1120403456
-9.0001421 -4.0675778 1.057464 1120403456
-9.0020485 -4.1253848 1.0602136 1120403456
-8.998044 -4.1807427 1.0623076 1120403456
-9.0003042 -4.2392802 1.0651826 1120403456
-8.9977951 -4.2958541 1.0675353 1120403456
-9.0004501 -4.3551836 1.0705433 1120403456
-9.0020304 -4.4143162 1.073468 1120403456
-8.999877 -4.4719148 1.0759909 1120403456
-8.9977951 -4.5298271 1.0785652 1120403456
-8.9999695 -4.5901957 1.0816946 1120403456
-8.9981337 -4.6488385 1.0843871 1120403456
-9.00214 -4.7108369 1.0878299 1120403456
-9.0005827 -4.7702703 1.0906476 1120403456
-8.9977531 -4.8293352 1.0933564 1120403456
-9.0024796 -4.8928103 1.0970312 1120403456
-9.0013285 -4.9534636 1.1000391 1120403456
-9.000289 -5.0145178 1.1031083 1120403456
-8.9993687 -5.0759854 1.1062405 1120403456
-8.9971771 -5.1370826 1.1092651 1120403456
-9.0031757 -5.2032561 1.1133512 1120403456
-9.0027485 -5.2661366 1.1166958 1120403456
-9.0024633 -5.3294826 1.1201092 1120403456
-9.0009117 -5.3924618 1.1234167 1120403456
-9.0009146 -5.4567637 1.1269706 1120403456
-9.0010738 -5.5215712 1.1305979 1120403456
-9.0013943 -5.5868988 1.1343001 1120403456
-9.0018835 -5.6527615 1.1380789 1120403456
-9.0011148 -5.7182655 1.1417546 1120403456
-9.0019484 -5.7852287 1.1456902 1120403456
-9.002965 -5.8527722 1.1497073 1120403456
-9.0041742 -5.9209146 1.1538082 1120403456
-8.9973755 -5.9842153 1.1569396 1120403456
-8.9973936 -6.0524726 1.1610044 1120403456
-8.9990568 -6.1223321 1.165343 1120403456
-9.0009317 -6.1928554 1.1697724 1120403456
-9.0030251 -6.26406 1.1742944 1120403456
-8.9964561 -6.3297138 1.177748 1120403456
-8.9988527 -6.4021621 1.1824374 1120403456
-9.0000105 -6.4742875 1.1870315 1120403456
-9.0028753 -6.5482116 1.1919187 1120403456
-8.9965239 -6.6159549 1.1956517 1120403456
-8.9997253 -6.691258 1.2007208 1120403456
-9.0031862 -6.7673783 1.2058975 1120403456
-8.9970055 -6.8368111 1.2098517 1120403456
-9.0008326 -6.9144211 1.2152221 1120403456
-9.0034361 -6.9917498 1.2205038 1120403456
-5.9894571 -4.7017212 0.81525832 1120403456
-5.9209232 -4.698277 0.80926996 1120403456
-5.8639169 -4.7033296 0.80483609 1120403456
-5.7968493 -4.6996675 0.79900014 1120403456
-5.7409286 -4.7044024 0.79467952 1120403456
-5.6752915 -4.7005424 0.78899276 1120403456
-5.609509 -4.6958356 0.78325778 1120403456
-5.5552506 -4.7001452 0.77911013 1120403456
-5.4917955 -4.6960583 0.77365148 1120403456
-2.2962782 -1.9844835 0.32494658 1120403456
-2.2717006 -1.9841335 0.32293552 1120403456
-2.2429087 -1.9798017 0.32031307 1120403456
-2.220475 -1.9807982 0.3185873 1120403456
-2.1972165 -1.9808246 0.31673524 1120403456
-2.1770246 -1.9833997 0.31531847 1120403456
-2.1548898 -1.9839984 0.31361407 1120403456
-2.1387575 -1.9899546 0.31277964 1120403456
-2.126915 -1.9998327 0.31257606 1120403456
-4.9447136 -4.6983314 0.73029423 1120403456
-4.8960862 -4.7011929 0.72674096 1120403456
-4.8400488 -4.6963811 0.72206628 1120403456
-4.7923036 -4.6990604 0.71860713 1120403456
-4.7449279 -4.7016306 0.71518785 1120403456
-4.6905389 -4.6967063 0.71069002 1120403456
-4.6432085 -4.6982999 0.70723951 1120403456
-4.5970464 -4.7006054 0.70395058 1120403456
-4.5512366 -4.7028136 0.70069993 1120403456
-4.4989109 -4.6977596 0.69642454 1120403456
-4.4539123 -4.6998301 0.69326186 1120403456
-4.4092541 -4.7018123 0.69013643 1120403456
-4.3584428 -4.6967154 0.68602639 1120403456
-4.3145657 -4.698576 0.68298626 1120403456
-4.2710166 -4.700357 0.67998236 1120403456
-4.2277923 -4.7020597 0.67701435 1120403456
-4.1788673 -4.6969209 0.67311209 1120403456
-4.1363864 -4.698524 0.67022628 1120403456
-4.0942173 -4.7000575 0.66737527 1120403456
-4.0516434 -4.7006941 0.66444176 1120403456
-4.0100937 -4.7020912 0.66165972 1120403456
-3.9633727 -4.6969385 0.65800303 1120403456
-3.9225223 -4.6982608 0.6552996 1120403456
-3.8819654 -4.6995239 0.65262944 1120403456
-3.8416977 -4.7007294 0.64999217 1120403456
-3.8017168 -4.7018805 0.64738762 1120403456
-3.7620182 -4.7029772 0.64481539 1120403456
-3.7177324 -4.6978741 0.64143562 1120403456
-3.6786828 -4.6989231 0.63893801 1120403456
-3.6399043 -4.6999245 0.63647175 1120403456
-3.6013939 -4.7008801 0.63403672 1120403456
-3.5631485 -4.7017927 0.63163263 1120403456
-3.5251648 -4.7026629 0.62925923 1120403456
-3.4831316 -4.6976833 0.62614191 1120403456
-3.4457467 -4.6985273 0.62383908 1120403456
-3.4086125 -4.6993346 0.62156606 1120403456
-3.3717258 -4.7001066 0.6193226 1120403456
-3.3350832 -4.7008443 0.61710846 1120403456
-3.298682 -4.7015505 0.61492336 1120403456
-3.2625186 -4.7022252 0.6127671 1120403456
-3.2265902 -4.7028713 0.61063945 1120403456
-3.186687 -4.6972885 0.6077379 1120403456
-3.1513009 -4.6979318 0.60567617 1120403456
-3.1161392 -4.6985493 0.60364223 1120403456
-3.0811992 -4.6991434 0.60163587 1120403456
-3.0464771 -4.6997142 0.59965676 1120403456
-3.0119703 -4.7002635 0.59770471 1120403456
-2.9980819 -4.733007 0.59986234 1120403456
-2.9972363 -4.7869811 0.60470402 1120403456
-2.9963796 -4.8418393 0.60964191 1120403456
-3.0038006 -4.9111595 0.61637968 1120403456
-3.0030119 -4.968174 0.62155169 1120403456
-3.0022087 -5.0261531 0.62682843 1120403456
-3.0013893 -5.0851226 0.63221246 1120403456
-3.0005517 -5.1451087 0.63770664 1120403456
-2.9996946 -5.20614 0.64331394 1120403456
-2.998816 -5.2682452 0.64903736 1120403456
-2.9979146 -5.3314543 0.65488011 1120403456
-2.9969871 -5.3957963 0.66084522 1120403456
-2.996032 -5.4613037 0.66693616 1120403456
-3.0044026 -5.5452766 0.67525905 1120403456
-3.0034938 -5.613636 0.68165731 1120403456
-3.002552 -5.6832752 0.68819338 1120403456
-4.6936135 -8.9979897 1.0865822 1120403456
-4.6342125 -8.9988031 1.0837328 1120403456
-4.5751162 -8.9996023 1.0809269 1120403456
-4.5163207 -9.0003939 1.0781645 1120403456
-4.4578195 -9.0011721 1.0754446 1120403456
-4.3996091 -9.0019426 1.0727673 1120403456
-4.3416839 -9.0027046 1.0701319 1120403456
-4.2813702 -8.9978495 1.0668733 1120403456
-4.2240815 -8.9986925 1.0643339 1120403456
-4.1670618 -8.9995279 1.0618353 1120403456
-4.1103067 -9.0003567 1.0593772 1120403456
-4.0538111 -9.0011797 1.0569592 1120403456
-3.99757 -9.001996 1.0545806 1120403456
-3.9415796 -9.0028067 1.0522413 1120403456
-3.8858342 -9.0036125 1.0499411 1120403456
-3.827605 -8.9980068 1.0469339 1120403456
-3.7724164 -8.9988966 1.0447229 1120403456
-3.7174582 -8.9997816 1.0425497 1120403456
-3.6627264 -9.0006618 1.040414 1120403456
-3.6082156 -9.0015354 1.0383149 1120403456
-3.5539234 -9.0024061 1.036253 1120403456
-3.4975851 -8.9974613 1.0335598 1120403456
-3.4437842 -8.9984131 1.0315818 1120403456
-3.3901861 -8.9993563 1.0296391 1120403456
-3.336787 -9.0002937 1.0277317 1120403456
-3.2835829 -9.0012255 1.0258591 1120403456
-3.2305698 -9.0021505 1.024021 1120403456
-3.1758974 -8.997839 1.0216233 1120403456
-3.1233153 -8.9988375 1.0198643 1120403456
-3.07145 -9.0014076 1.0183175 1120403456
-3.0192091 -9.0023861 1.0166243 1120403456
-2.9655404 -8.9985075 1.0144174 1120403456
-2.9136913 -8.9995518 1.0127999 1120403456
-2.8620031 -9.0005836 1.0112144 1120403456
-2.8104727 -9.001606 1.0096606 1120403456
-2.7577255 -8.9981413 1.0076373 1120403456
-2.7065494 -8.9992199 1.0061558 1120403456
-2.6555188 -9.0002823 1.0047051 1120403456
-2.6046302 -9.0013304 1.0032846 1120403456
-2.5527143 -8.9982529 1.0014368 1120403456
-2.5021453 -8.9993496 1.0000857 1120403456
-2.4517064 -9.0004244 0.99876374 1120403456
-2.4007866 -8.9992008 0.99721819 1120403456
-2.3506312 -9.0003109 0.99596256 1120403456
-2.300596 -9.001399 0.99473518 1120403456
-2.2497845 -8.9988937 0.99314183 1120403456
-2.2000182 -9.0000124 0.99197924 1120403456
-2.1503603 -9.0011015 0.99084365 1120403456
-2.1000371 -8.9988546 0.9893713 1120403456
-2.0506248 -8.9999647 0.98829824 1120403456
-2.0006161 -8.9979134 0.98690826 1120403456
-1.9514329 -8.9990339 0.98589593 1120403456
-1.9026661 -9.0016508 0.98507679 1120403456
-1.8530631 -8.9998159 0.98379982 1120403456
-1.8041707 -9.0008974 0.982871 1120403456
-1.7548336 -8.9992294 0.98167115 1120403456
-1.7061346 -9.0003042 0.98079967 1120403456
-1.6570444 -8.9987907 0.97967505 1120403456
-1.6085244 -8.9998503 0.97885931 1120403456
-1.5596635 -8.9984827 0.97780806 1120403456
-1.5115625 -9.0010252 0.97721028 1120403456
-1.4629036 -8.9997816 0.97622955 1120403456
-1.4146932 -9.0007801 0.97552025 1120403456
-1.3662293 -8.9996548 0.97460896 1120403456
-1.318159 -9.0006113 0.97395104 1120403456
-1.2698737 -8.9995918 0.97310734 1120403456
-1.2216835 -8.9986687 0.97230196 1120403456
-1.1740044 -9.0010653 0.97188276 1120403456
-1.1259598 -9.0002193 0.97114098 1120403456
-1.0779966 -8.9994545 0.97043556 1120403456
-1.0302845 -9.0002871 0.96992987 1120403456
-0.98245394 -8.9995899 0.96928662 1120403456
-0.93469238 -8.9989605 0.96867794 1120403456
-0.88726914 -9.0011692 0.96840191 1120403456
-0.8396107 -9.0005798 0.96785182 1120403456
-0.79201007 -9.0000477 0.96733505 1120403456
-0.74446326 -8.9995689 0.96685094 1120403456
-0.6970458 -9.0001621 0.96650898 1120403456
-0.64958453 -8.9997034 0.96608084 1120403456
-0.60226351 -9.0007305 0.96583915 1120403456
-0.55487752 -9.0003414 0.9654721 1120403456
-0.50752813 -8.9999857 0.96513534 1120403456
-0.46021184 -8.9996576 0.96482831 1120403456
-0.41292557 -8.9993572 0.96455085 1120403456
-0.36566594 -8.999074 0.96430194 1120403456
-0.3184976 -9.0007191 0.96428609 1120403456
-0.2712701 -9.0003929 0.96408558 1120403456
-0.22406113 -9.0000734 0.96391237 1120403456
-0.17686202 -8.9994593 0.96373409 1120403456
-0.12970454 -9.0006132 0.96377164 1120403456
-0.08252909 -9.000349 0.96368384 1120403456
-0.035360906 -9.0000763 0.96362156 1120403456
0.011802464 -8.9997921 0.96358454 1120403456
0.058963392 -8.9994907 0.96357214 1120403456
0.10614047 -9.0005531 0.96373212 1120403456
0.15331037 -9.0001974 0.96376687 1120403456
0.20048817 -8.9999847 0.96384341 1120403456
0.24767059 -8.9996223 0.96393031 1120403456
0.29490641 -9.0005894 0.96418619 1120403456
0.34211478 -9.0001411 0.96431696 1120403456
0.38935199 -9.0000324 0.96451074 1120403456
0.4365907 -8.9995375 0.96468967 1120403456
0.48394471 -9.0008364 0.96508741 1120403456
0.5312289 -9.0002699 0.96531188 1120403456
0.57853246 -8.9996405 0.96555638 1120403456
0.62590164 -8.9995918 0.96588981 1120403456
0.67335427 -9.000205 0.96632099 1120403456
0.72079659 -9.0001421 0.96670657 1120403456
0.76827979 -9.0001011 0.9671213 1120403456
0.81572944 -8.9992247 0.96747321 1120403456
0.86341709 -9.0004549 0.96807861 1120403456
0.91103196 -9.0003662 0.96856922 1120403456
0.9585914 -8.9992895 0.96898067 1120403456
1.0064403 -9.0004282 0.9696579 1120403456
1.0542021 -9.0002422 0.97021961 1120403456
1.1020175 -9.0000315 0.97080612 1120403456
1.1500516 -9.0010681 0.9715547 1120403456
1.197826 -8.999589 0.97205919 1120403456
1.2458045 -8.9992132 0.97271049 1120403456
1.2940239 -9.0000563 0.97352117 1120403456
1.3421261 -8.999568 0.97421575 1120403456
1.3904971 -9.0003643 0.97507739 1120403456
1.4389348 -9.0010357 0.9759537 1120403456
1.487241 -9.0003777 0.9767139 1120403456
1.5356107 -8.9996395 0.97749376 1120403456
1.5842617 -9.0000534 0.97842699 1120403456
1.633041 -9.0006552 0.97940928 1120403456
1.6816238 -8.9996738 0.98024797 1120403456
1.7305061 -8.9998093 0.98123693 1120403456
1.2985839 -6.5677204 0.71680176 1120403456
1.3017551 -6.407124 0.70000911 1120403456
1.2989618 -6.2259827 0.68095297 1120403456
1.3023261 -6.0825067 0.66599786 1120403456
1.3004357 -5.9219217 0.64915204 1120403456
1.2987975 -5.7699633 0.63323194 1120403456
1.3146727 -5.7008796 0.62639779 1120403456
1.3458782 -5.6996255 0.62702632 1120403456
1.3774077 -5.6994457 0.62779206 1120403456
1.4091799 -5.6999326 0.62865043 1120403456
1.440835 -5.6996098 0.62943894 1120403456
1.4727392 -5.6999388 0.63031894 1120403456
1.5045186 -5.6994548 0.63112861 1120403456
1.5368874 -5.7008491 0.63216615 1120403456
1.5688006 -5.7002015 0.63299733 1120403456
1.6009736 -5.7001758 0.63391739 1120403456
1.6330076 -5.6993346 0.63476682 1120403456
1.6656837 -5.7003908 0.63584793 1120403456
1.6978471 -5.6993527 0.63671583 1120403456
1.7306777 -5.7002168 0.63781685 1120403456
1.7633767 -5.7002878 0.63885003 1120403456
1.7959498 -5.6996202 0.63982117 1120403456
1.8287928 -5.6994791 0.64087236 1120403456
1.8619334 -5.6999149 0.64200974 1120403456
1.8949277 -5.6995559 0.64307892 1120403456
1.9282224 -5.6997552 0.64423269 1120403456
1.9613634 -5.6991582 0.64531803 1120403456
1.9952908 -5.7004833 0.64664316 1120403456
2.0288191 -5.7002978 0.64781928 1120403456
2.0621819 -5.6993146 0.64892679 1120403456
2.0963662 -5.7002473 0.65027493 1120403456
2.130116 -5.6996388 0.65147001 1120403456
2.1642232 -5.6996393 0.65275741 1120403456
2.1986601 -5.7001424 0.65412557 1120403456
2.2329323 -5.6998549 0.65542638 1120403456
2.2675345 -5.7000504 0.65680623 1120403456
2.302218 -5.7000837 0.6581912 1120403456
2.3369806 -5.6999512 0.65958101 1120403456
2.3721557 -5.7004528 0.66106844 1120403456
2.4070773 -5.6999779 0.66246706 1120403456
2.4426842 -5.7007523 0.66403568 1120403456
2.4774947 -5.699307 0.66537052 1120403456
2.5132661 -5.6997151 0.66694659 1120403456
2.5491219 -5.6999316 0.66852587 1120403456
2.5850589 -5.6999512 0.67010784 1120403456
2.6210749 -5.699769 0.67169201 1120403456
2.6575594 -5.700223 0.67337745 1120403456
2.6937311 -5.6996274 0.67496538 1120403456
2.7306552 -5.7002401 0.67672324 1120403456
2.7676637 -5.7006307 0.67848212 1120403456
2.8047523 -5.7007918 0.68024135 1120403456
2.8419187 -5.7007213 0.68200058 1120403456
2.8791595 -5.7004132 0.68375939 1120403456
2.9164703 -5.699863 0.68551725 1120403456
2.9545755 -5.700469 0.68744278 1120403456
2.9924722 -5.7002707 0.68930054 1120403456
3.0307283 -5.7003589 0.69122225 1120403456
3.0690541 -5.7001777 0.69314104 1120403456
3.1077378 -5.7002583 0.69512159 1120403456
3.1469522 -5.7008977 0.69720101 1120403456
3.1854746 -5.6998796 0.69910848 1120403456
3.2248204 -5.6999354 0.70117843 1120403456
3.2642283 -5.6996908 0.70324296 1120403456
3.3044517 -5.7004476 0.70546323 1120403456
3.3443501 -5.7002192 0.70759416 1120403456
3.3846726 -5.7002945 0.70979559 1120403456
3.425441 -5.7006922 0.71207047 1120403456
3.4656875 -5.6998005 0.71421784 1120403456
3.5073791 -5.7008548 0.71664327 1120403456
3.5485129 -5.7005625 0.71893424 1120403456
3.5901041 -5.700573 0.7212984 1120403456
3.632175 -5.7009044 0.72373873 1120403456
3.6735413 -5.6996994 0.72601974 1120403456
3.7165964 -5.7006745 0.72861481 1120403456
3.7588987 -5.7000451 0.73104197 1120403456
3.801681 -5.6997046 0.7335434 1120403456
3.8449638 -5.6996675 0.73612159 1120403456
3.888772 -5.6999502 0.7387799 1120403456
3.9331315 -5.700572 0.74152178 1120403456
3.9769006 -5.6998773 0.7441321 1120403456
4.022388 -5.7011728 0.74704289 1120403456
4.066812 -5.7004852 0.749735 1120403456
4.1117702 -5.7000861 0.75250614 1120403456
4.1572862 -5.6999898 0.75535917 1120403456
4.2038331 -5.7008185 0.75837797 1120403456
4.2485971 -5.698761 0.76105559 1120403456
4.2958822 -5.6996102 0.76416492 1120403456
6.8586922 -9.0013218 1.2116382 1120403456
6.9328251 -9.0003824 1.2163855 1120403456
7.0071168 -8.998889 1.2211294 1120403456
7.0823503 -8.9978371 1.2260063 1120403456
7.1593637 -8.9982538 1.2311581 1120403456
7.2366142 -8.9981585 1.2363168 1120403456
7.3149362 -8.9985781 1.2416242 1120403456
7.3952131 -9.000555 1.2472272 1120403456
7.4758286 -9.002079 1.2528498 1120403456
7.5531507 -8.9988203 1.2578878 1120403456
7.6369734 -9.0024605 1.2639735 1120403456
7.7164235 -9.0000811 1.2692995 1120403456
7.7978368 -8.9991703 1.2749166 1120403456
7.8794379 -8.9976358 1.2805315 1120403456
7.9631195 -8.9976215 1.2864506 1120403456
8.0470505 -8.9970121 1.2923752 1120403456
8.1322126 -8.9968987 1.2984626 1120403456
8.2196436 -8.9983826 1.3048755 1120403456
8.3074331 -8.9993277 1.3113074 1120403456
8.3976345 -9.0019321 1.3180813 1120403456
8.481823 -8.9971895 1.3238767 1120403456
8.5748091 -9.0008564 1.33101 1120403456
8.6614447 -8.9969168 1.3371211 1120403456
8.7574387 -9.0017366 1.3446394 1120403456
8.8467197 -8.9986753 1.3510888 1120403456
8.9384117 -8.9971428 1.3578728 1120403456
8.9966669 -8.9613647 1.3595698 1120403456
8.9982491 -8.8694897 1.3527665 1120403456
8.9982014 -8.7769518 1.3458261 1120403456
8.9988317 -8.6860104 1.339094 1120403456
8.9990072 -8.5955429 1.332399 1120403456
8.9975605 -8.5044422 1.325568 1120403456
8.9968443 -8.414937 1.3189478 1120403456
9.002017 -8.3317633 1.3132871 1120403456
9.0004416 -8.2431574 1.3067373 1120403456
8.997263 -8.1539631 1.3000543 1120403456
9.0023546 -8.07306 1.2946591 1120403456
8.9995689 -7.9858718 1.2882224 1120403456
9.002656 -7.904676 1.2827172 1120403456
8.9991064 -7.8184252 1.2763561 1120403456
9.0014172 -7.7380319 1.270915 1120403456
8.9971399 -7.6527319 1.2646316 1120403456
8.9999399 -7.5741897 1.2594289 1120403456
9.0011463 -7.4949808 1.2540842 1120403456
9.0032349 -7.4171739 1.2489426 1120403456
8.997613 -7.3337302 1.2428144 1120403456
8.9977903 -7.2557306 1.2375698 1120403456
8.9988909 -7.1791234 1.2325298 1120403456
8.9996786 -7.1028948 1.2275227 1120403456
8.9988852 -7.026052 1.2223758 1120403456
3.1814523 -2.4572537 0.43040177 1120403456
3.1947048 -2.4408684 0.43045828 1120403456
3.2075088 -2.4241369 0.43046594 1120403456
3.2207801 -2.4077528 0.43054777 1120403456
3.233917 -2.3912585 0.43062282 1120403456
3.2467337 -2.3745203 0.43066663 1120403456
3.2600372 -2.3581281 0.43078616 1120403456
3.2733665 -2.3417397 0.43092003 1120403456
3.28649 -2.3251884 0.43103763 1120403456
3.299372 -2.3084536 0.43113467 1120403456
3.3124907 -2.2918706 0.43127361 1120403456
3.3259022 -2.2754703 0.43146127 1120403456
3.3388603 -2.2587404 0.43160081 1120403456
3.3520031 -2.2421172 0.431775 1120403456
3.3655193 -2.2257197 0.4320077 1120403456
3.3786879 -2.2090669 0.43220612 1120403456
3.3913505 -2.1920633 0.43235055 1120403456
3.4049728 -2.1756556 0.43262777 1120403456
3.4181812 -2.1589537 0.43286255 1120403456
3.431401 -2.142231 0.43310905 1120403456
3.4446378 -2.1254895 0.43336794 1120403456
3.4579089 -2.1087389 0.43364137 1120403456
3.471199 -2.0919678 0.43392727 1120403456
3.4845104 -2.075176 0.43422592 1120403456
3.4979491 -2.0584245 0.43455037 1120403456
3.5113332 -2.041604 0.43487802 1120403456
3.5247471 -2.0247629 0.43521926 1120403456
3.538192 -2.0079002 0.43557414 1120403456
3.5516713 -1.9910165 0.4359431 1120403456
3.5646279 -1.9738013 0.43625781 1120403456
3.5781772 -1.9568745 0.43665504 1120403456
3.5917685 -1.9399254 0.43706703 1120403456
3.6054046 -1.922954 0.4374941 1120403456
3.6190882 -1.9059594 0.43793651 1120403456
3.6322434 -1.8886409 0.43832475 1120403456
3.6460245 -1.8716 0.43879819 1120403456
3.6598599 -1.8545344 0.43928763 1120403456
3.6737545 -1.8374439 0.43979359 1120403456
3.6877108 -1.820328 0.44031632 1120403456
3.7011342 -1.8028951 0.44078496 1120403456
3.714031 -1.7851573 0.4412007 1120403456
3.7281437 -1.7679505 0.44177052 1120403456
3.7423284 -1.7507153 0.44235817 1120403456
3.7565899 -1.7334512 0.44296408 1120403456
3.769588 -1.7155466 0.4434306 1120403456
3.7833476 -1.697933 0.44399643 1120403456
3.7978051 -1.6805669 0.44465345 1120403456
